33.126 -73 6.339
33.794 -73 5.13
33.508 -69.736 5.13
12.155 -56.866 8.604
9.076 -56.724 7.5
9.397 -57.605 8.604
32.851 -69.852 6.339
32.66 -66.572 5.13
21.84 -54.206 0
11.527 -53.304 0
18.473 -53.304 0
25 -55.679 0
27.856 -57.679 0
5 -55.679 0
30.321 -60.144 0
15 -53 0
32.321 -63 0
33.153 -66.393 3.882
15 -60.144 11.491
12.544 -59.073 10.607
12.768 -60.34 11.491
15 -58.858 10.607
8.393 -91.153 3.882
8.264 -91.508 2.605
11.58 -92.397 2.605
8.16 -54.206 0
34.319 -73 3.882
34.025 -69.645 3.882
34.397 -69.58 2.605
34.696 -73 2.605
11.645 -92.025 3.882
15 -92.696 2.605
15 -57.679 9.642
12.34 -57.912 9.642
34.696 -69.527 0
35 -73 0
2.144 -57.679 0
33.794 -79.84 0
34.696 -76.473 0
15 -92.319 3.882
33.794 -66.16 0
34.025 -76.355 3.882
32.321 -83 0
33.508 -66.264 2.605
11.54 -92.621 1.307
27.856 -88.321 0
30.321 -85.856 0
15 -92.924 1.307
25 -90.321 2.19705E-11
24.962 -90.255 1.307
21.814 -91.722 1.307
21.84 -91.794 0
8.572 -75.34 14.095
9.076 -76.42 14.095
10.136 -74.77 14.489
15 -93 0
18.473 -92.696 0
10.517 -75.588 14.489
2.144 -88.321 0
-0.321 -85.856 0
20.736 -82.935 12.287
21.428 -84.133 11.491
23.264 -82.848 11.491
11.527 -92.696 0
24.09 -83.834 10.607
22.071 -85.247 10.607
7.057 -75.891 13.595
8.264 -74.188 14.095
8.16 -91.794 0
5 -90.321 0
22.66 -86.268 9.642
24.848 -84.736 9.642
-2.321 -63 0
-0.321 -60.144 0
-3.794 -66.16 0
6.736 -82.848 11.491
5.152 -81.264 11.491
5.91 -83.834 10.607
7.929 -85.247 10.607
-4.696 -76.473 0
-4.696 -69.527 0
-5 -73 0
11.035 -76.327 14.489
9.76 -77.397 14.095
-2.321 -83 0
11.673 -76.965 14.489
10.603 -78.24 14.095
-3.794 -79.84 0
4.166 -82.09 10.607
16.736 -82.848 12.99
18.923 -83.78 12.287
18.42 -82.397 12.99
16.992 -84.297 12.287
7.68 -77.226 13.595
3.264 -82.848 9.642
9.567 -79.475 13.595
7.34 -86.268 9.642
20 -81.66 12.99
10.163 -59.711 10.607
5.152 -84.736 9.642
10.603 -60.92 11.491
7.929 -60.753 10.607
14.101 -78.098 14.489
15 -79.84 14.095
15 -78.176 14.489
4.469 -85.55 8.604
6.808 -87.188 8.604
17.232 -85.66 11.491
19.397 -85.08 11.491
9.76 -58.603 9.642
13.23 -77.864 14.489
12.66 -79.428 14.095
13.812 -79.736 14.095
2.45 -83.531 8.604
15 -85.856 11.491
17.456 -86.927 10.607
1.732 -84.133 7.5
19.837 -86.289 10.607
6.808 -58.812 8.604
16.188 -79.736 14.095
15.899 -78.098 14.489
6.34 -88 7.5
12.109 -80.943 13.595
10.774 -80.32 13.595
11.58 -78.924 14.095
15 -81.452 13.595
20.24 -87.397 9.642
8.608149E-12 -81.66 7.5
1.115 -84.651 6.339
3.349 -86.885 6.339
17.66 -88.088 9.642
0.603 -85.08 5.13
15 -63 12.99
13.264 -63.152 12.99
15 -64.548 13.595
13.532 -81.324 13.595
3.867 -86.268 7.5
13.008 -61.703 12.287
13.532 -64.676 13.595
17.845 -89.134 8.604
20.603 -88.395 8.604
5.937 -88.698 6.339
16.468 -81.324 13.595
23.192 -87.188 8.604
17.891 -80.943 13.595
16.736 -63.152 12.99
15 -61.528 12.287
15 -83 12.99
2.92 -87.397 5.13
5.603 -89.276 5.13
11.077 -62.22 12.287
20.924 -89.276 7.5
18.008 -90.057 7.5
0.201 -85.418 3.882
2.582 -87.799 3.882
5.341 -89.73 3.882
11.58 -63.603 12.99
12.109 -65.057 13.595
34.924 -73 1.307
34.621 -69.54 1.307
10 -64.34 12.99
23.66 -88 7.5
2.34 -88.088 2.605
33.722 -66.186 1.307
32.255 -63.038 1.307
26.133 -86.268 7.5
34.621 -76.46 1.307
5.152 -90.057 2.605
9.264 -63.065 12.287
8.572 -65.34 12.99
7.626 -64.212 12.287
18.148 -90.851 6.339
21.2 -90.033 6.339
-0.088 -85.66 2.605
2.193 -88.263 1.307
5.038 -90.255 1.307
24.063 -88.698 6.339
8.525 -78.433 13.595
8.572 -61.867 11.491
-0.263 -85.807 1.307
6.736 -63.152 11.491
24.397 -89.276 5.13
27.08 -87.397 5.13
7.34 -79.428 12.99
10 -81.66 12.99
8.572 -80.66 12.99
11.58 -82.397 12.99
8.186 -91.722 1.307
18.008 -55.943 7.5
15 -54.874 6.339
15 -55.679 7.5
13.264 -82.848 12.99
21.428 -90.66 5.13
15 -54.206 5.13
11.736 -54.492 5.13
18.264 -91.508 5.13
9.264 -82.935 12.287
6.676 -74.468 13.595
18.355 -92.025 3.882
21.607 -91.153 3.882
11.992 -55.943 7.5
21.736 -91.508 2.605
5.152 -74.736 12.99
5.603 -76.42 12.99
18.42 -92.397 2.605
11.852 -55.149 6.339
24.659 -89.73 3.882
-1.134 -70.155 8.604
-1.383 -73 8.604
-0.088 -70.34 9.642
8.8 -55.967 6.339
-0.321 -73 9.642
8.572 -55.34 5.13
6.548 -73 13.595
5.937 -57.302 6.339
4.22 -76.923 12.287
18.46 -92.621 1.307
-2.321 -73 7.5
6.34 -78 12.99
11.645 -53.975 3.882
-1.276 -67.076 7.5
-2.057 -69.992 7.5
-0.395 -67.397 8.604
15 -53.681 3.882
-2.66 -66.572 5.13
-3.508 -69.736 5.13
-2.033 -66.8 6.339
11.58 -53.603 2.605
3.703 -74.992 12.287
8.393 -54.847 3.882
15 -66.16 14.095
13.812 -66.264 14.095
2.34 -75.232 11.491
2.92 -77.397 11.491
3.867 -79.428 11.491
15 -53.304 2.605
18.355 -53.975 3.882
10.774 -65.68 13.595
11.58 -67.076 14.095
12.66 -66.572 14.095
8.264 -54.492 2.605
-2.851 -69.852 6.339
2.144 -73 11.491
1.073 -75.456 10.607
16.188 -66.264 14.095
-3.126 -73 6.339
1.711 -77.837 10.607
0.603 -78.24 9.642
15 -53.076 1.307
11.54 -53.379 1.307
0.858 -73 10.607
-0.088 -75.66 9.642
-3.794 -73 5.13
32.851 -76.148 6.339
33.508 -76.264 5.13
18.46 -53.379 1.307
-4.025 -69.645 3.882
-4.319 -73 3.882
32.033 -79.2 6.339
-4.025 -76.355 3.882
15.899 -67.902 14.489
15 -67.824 14.489
15.603 -69.58 14.772
-3.153 -66.393 3.882
5.91 -62.166 10.607
7.34 -59.732 9.642
15 -69.527 14.772
-3.508 -66.264 2.605
-4.397 -69.58 2.605
33.153 -79.607 3.882
33.508 -79.736 2.605
34.397 -76.42 2.605
-4.621 -69.54 1.307
-4.696 -73 2.605
14.101 -67.902 14.489
14.397 -69.58 14.772
16.12 -71.665 14.943
15.872 -71.49 14.943
15 -73 15
13.23 -68.136 14.489
15.596 -71.362 14.943
15.303 -71.283 14.943
33.722 -79.814 1.307
-3.722 -66.186 1.307
-2.057 -63.152 2.605
12.412 -68.517 14.489
-4.924 -73 1.307
13.362 -72.404 14.943
13.283 -72.697 14.943
13.257 -73 14.943
32.255 -82.962 1.307
9.567 -66.525 13.595
30.088 -70.34 9.642
30.395 -67.397 8.604
29.397 -67.76 9.642
-1.134 -75.845 8.604
7.34 -66.572 12.99
8.525 -67.567 13.595
-0.395 -78.603 8.604
16.12 -74.335 14.943
16.335 -74.12 14.943
16.51 -73.872 14.943
13.264 -69.992 14.772
11.673 -69.035 14.489
-2.057 -76.008 7.5
-1.276 -78.924 7.5
10.603 -67.76 14.095
27.08 -68.603 11.491
26.133 -66.572 11.491
25.78 -69.077 12.287
9.76 -68.603 14.095
11.035 -69.673 14.489
27.247 -65.929 10.607
24.935 -67.264 12.287
7.68 -68.774 13.595
9.076 -69.58 14.095
24.848 -64.736 11.491
28.289 -68.163 10.607
-2.851 -76.148 6.339
-2.033 -79.2 6.339
25.834 -63.91 10.607
-0.698 -82.063 6.339
28.268 -65.34 9.642
-3.508 -76.264 5.13
16.638 -73.596 14.943
18.42 -73.603 14.772
16.717 -73.303 14.943
26.736 -63.152 9.642
16.188 -69.736 14.772
18.473 -73 14.772
29.188 -64.808 8.604
27.55 -62.469 8.604
30.321 -73 9.642
29.142 -73 10.607
28.927 -75.456 10.607
16.736 -69.992 14.772
16.743 -73 14.943
18.42 -72.397 14.772
16.717 -72.697 14.943
24.848 -61.264 9.642
24.09 -62.166 10.607
18.264 -71.812 14.772
16.638 -72.404 14.943
28.927 -70.544 10.607
15 -71.257 14.943
30.088 -75.66 9.642
31.383 -73 8.604
31.134 -70.155 8.604
14.697 -71.283 14.943
25.531 -60.45 8.604
13.812 -69.736 14.772
14.404 -71.362 14.943
32.057 -69.992 7.5
25 -73 12.99
26.297 -71.008 12.287
24.848 -71.264 12.99
24.659 -56.27 3.882
21.736 -54.492 2.605
21.607 -54.847 3.882
14.128 -71.49 14.943
12.768 -70.34 14.772
13.88 -71.665 14.943
24.848 -74.736 12.99
26.472 -73 12.287
31.134 -75.845 8.604
27.66 -70.768 11.491
28.268 -61.867 7.5
32.321 -73 7.5
32.057 -76.008 7.5
26.133 -59.732 7.5
26.651 -59.115 6.339
29.397 -60.92 5.13
27.08 -58.603 5.13
28.885 -61.349 6.339
6.212 -80.374 12.287
5.065 -78.736 12.287
26.297 -74.992 12.287
25.78 -76.923 12.287
27.66 -75.232 11.491
7.626 -81.788 12.287
27.418 -58.201 3.882
27.08 -77.397 11.491
27.856 -73 11.491
30 -64.34 7.5
8.572 -84.133 11.491
28.289 -77.837 10.607
29.397 -78.24 9.642
5.152 -61.264 9.642
16.51 -72.128 14.943
17.66 -70.768 14.772
16.335 -71.88 14.943
17.232 -70.34 14.772
2.753 -80.071 10.607
4.469 -60.45 8.604
3.867 -59.732 7.5
30.395 -78.603 8.604
6.34 -58 7.5
1.732 -80.66 9.642
0.812 -81.192 8.604
24.848 -81.264 11.491
27.247 -80.071 10.607
26.133 -79.428 11.491
24.935 -78.736 12.287
28.268 -80.66 9.642
29.188 -81.192 8.604
31.276 -78.924 7.5
30 -81.66 7.5
15 -84.472 12.287
13.008 -84.297 12.287
5.152 -64.736 11.491
6.212 -65.626 12.287
4.166 -63.91 10.607
3.264 -63.152 9.642
32.66 -79.428 5.13
1.732 -65.34 9.642
2.753 -65.929 10.607
13.665 -71.88 14.943
13.49 -72.128 14.943
2.45 -62.469 8.604
13.283 -73.303 14.943
11.58 -73.603 14.772
31.276 -67.076 7.5
0.812 -64.808 8.604
32.057 -82.848 2.605
11.736 -74.188 14.772
13.362 -73.596 14.943
12.34 -70.768 14.772
1.732 -61.867 7.5
11.992 -71.264 14.772
11.736 -71.812 14.772
32.033 -66.8 6.339
21.428 -75.34 14.095
23.324 -74.468 13.595
21.736 -74.188 14.095
11.58 -72.397 14.772
11.527 -73 14.772
5.603 -56.724 5.13
3.349 -59.115 6.339
2.92 -58.603 5.13
31.276 -63.603 5.13
5.341 -56.27 3.882
20.924 -76.42 14.095
22.32 -77.226 13.595
22.943 -75.891 13.595
10.517 -70.412 14.489
5.152 -55.943 2.605
10.136 -71.23 14.489
22.32 -68.774 13.595
21.475 -67.567 13.595
20.924 -69.58 14.095
-2.66 -79.428 5.13
8.186 -54.278 1.307
5.038 -55.745 1.307
2.193 -57.737 1.307
23.66 -68 12.99
22.66 -66.572 12.99
8.572 -70.66 14.095
-3.153 -79.607 3.882
24.397 -69.58 12.99
30.698 -63.937 6.339
23.788 -65.626 12.287
-4.397 -76.42 2.605
-3.508 -79.736 2.605
-2.057 -82.848 2.605
-1.73 -82.659 3.882
-4.621 -76.46 1.307
18.327 -69.035 14.489
18.42 -67.076 14.095
17.588 -68.517 14.489
13.49 -73.872 14.943
31.73 -63.341 3.882
13.665 -74.12 14.943
-3.722 -79.814 1.307
29.799 -60.582 3.882
13.88 -74.335 14.943
14.128 -74.51 14.943
14.404 -74.638 14.943
16.77 -68.136 14.489
14.697 -74.717 14.943
15 -74.743 14.943
32.057 -63.152 2.605
15.303 -74.717 14.943
18.965 -69.673 14.489
19.397 -67.76 14.095
15.596 -74.638 14.943
15.872 -74.51 14.943
30.088 -60.34 2.605
-1.276 -82.397 5.13
30.263 -60.193 1.307
27.66 -57.912 2.605
17.34 -66.572 14.095
24.848 -55.943 2.605
27.807 -57.737 1.307
-2.673864E-13 -64.34 7.5
20.24 -68.603 14.095
24.962 -55.745 1.307
20.433 -66.525 13.595
19.226 -65.68 13.595
-2.255 -82.962 1.307
1.115 -61.349 6.339
12.768 -85.66 11.491
0.603 -60.92 5.13
23.66 -78 12.99
24.397 -76.42 12.99
17.891 -65.057 13.595
21.428 -65.34 12.99
2.582 -58.201 3.882
0.201 -60.582 3.882
2.34 -57.912 2.605
21.84 -73 14.095
23.324 -71.532 13.595
21.736 -71.812 14.095
-0.088 -60.34 2.605
-1.73 -63.341 3.882
23.192 -58.812 8.604
22.66 -59.732 9.642
17.66 -75.232 14.772
17.232 -75.66 14.772
20.603 -57.605 8.604
-0.263 -60.193 1.307
22.943 -70.109 13.595
21.428 -70.66 14.095
19.483 -75.588 14.489
18.008 -74.736 14.772
-0.698 -63.937 6.339
18.264 -74.188 14.772
23.452 -73 13.595
23.66 -58 7.5
20.924 -56.724 7.5
-1.276 -63.603 5.13
18.327 -76.965 14.489
18.965 -76.327 14.489
19.864 -74.77 14.489
16.992 -61.703 12.287
17.232 -60.34 11.491
20.098 -73.899 14.489
17.456 -59.073 10.607
19.397 -60.92 11.491
19.837 -59.711 10.607
-2.255 -63.038 1.307
18.008 -71.264 14.772
22.071 -60.753 10.607
20.24 -58.603 9.642
19.483 -70.412 14.489
17.66 -57.912 9.642
16.736 -76.008 14.772
17.845 -56.866 8.604
17.588 -77.483 14.489
19.397 -78.24 14.095
19.864 -71.23 14.489
20.24 -77.397 14.095
22.374 -64.212 12.287
20.736 -63.065 12.287
23.264 -63.152 11.491
21.428 -61.867 11.491
21.475 -78.433 13.595
16.468 -64.676 13.595
20.433 -79.475 13.595
22.66 -79.428 12.99
21.428 -80.66 12.99
20 -64.34 12.99
18.42 -63.603 12.99
20.176 -73 14.489
22.374 -81.788 12.287
23.788 -80.374 12.287
18.923 -62.22 12.287
12.544 -86.927 10.607
15 -87.142 10.607
17.34 -79.428 14.095
16.77 -77.864 14.489
11.077 -83.78 12.287
18.42 -78.924 14.095
10.603 -85.08 11.491
9.902 -72.101 14.489
9.824 -73 14.489
18.148 -55.149 6.339
10.163 -86.289 10.607
21.2 -55.967 6.339
8.16 -73 14.095
19.226 -80.32 13.595
24.397 -56.724 5.13
8.264 -71.812 14.095
21.428 -55.34 5.13
24.063 -57.302 6.339
6.676 -71.532 13.595
18.264 -54.492 5.13
9.76 -87.397 9.642
25.834 -82.09 10.607
12.34 -88.088 9.642
6.34 -68 12.99
26.736 -82.848 9.642
5.603 -69.58 12.99
15 -88.321 9.642
25.531 -85.55 8.604
27.55 -83.531 8.604
15 -89.383 8.604
5.065 -67.264 12.287
28.268 -84.133 7.5
9.397 -88.395 8.604
18.42 -53.603 2.605
12.155 -89.134 8.604
4.22 -69.077 12.287
21.814 -54.278 1.307
3.867 -66.572 11.491
26.651 -86.885 6.339
28.885 -84.651 6.339
30.698 -82.063 6.339
9.076 -89.276 7.5
11.992 -90.057 7.5
15 -90.321 7.5
29.397 -85.08 5.13
31.276 -82.397 5.13
2.92 -68.603 11.491
27.418 -87.799 3.882
29.799 -85.418 3.882
8.8 -90.033 6.339
1.711 -68.163 10.607
31.73 -82.659 3.882
15 -56.617 8.604
0.603 -67.76 9.642
20.098 -72.101 14.489
27.66 -88.088 2.605
30.088 -85.66 2.605
11.852 -90.851 6.339
15 -91.126 6.339
30.263 -85.807 1.307
27.807 -88.263 1.307
15 -91.794 5.13
8.572 -90.66 5.13
11.736 -91.508 5.13
7.057 -70.109 13.595
5 -73 12.99
24.848 -90.057 2.605
5.152 -71.264 12.99
3.528 -73 12.287
3.703 -71.008 12.287
2.34 -70.768 11.491
1.073 -70.544 10.607
15.603 -76.42 14.772
12.34 -75.232 14.772
12.768 -75.66 14.772
13.264 -76.008 14.772
14.397 -76.42 14.772
15 -76.473 14.772
16.188 -76.264 14.772
13.812 -76.264 14.772
12.412 -77.483 14.489
11.992 -74.736 14.772
9.902 -73.899 14.489
