-2.2974e-05 -4.0927e-06 0.0009998
-2.2974e-05 -4.0927e-06 0.0009998
3.591e-05 -0.00027687 0.0045421
-0.00032509 -0.00079459 0.0072368
-0.00030783 -0.00074872 0.0068161
-0.00020141 -0.00040864 0.0032159
-0.00070751 -0.0005243 0.0041319
0.0076176 -0.0061052 0.047212
0.00018567 -3.4648e-05 0.0042319
8.9181e-05 -4.8437e-05 0.0040483
0.00022955 -0.00017056 0.0048558
3.577e-05 -0.00027666 0.0045107
0.00033377 -0.00033571 0.0051163
0.00018121 -0.00032705 0.00467
-0.00025149 -0.00066269 0.0069069
-0.00040476 -0.00061531 0.0065043
0.00024776 -0.00053399 0.0050038
-0.00020309 -0.00041636 0.0032952
0.00023782 -0.00017259 0.0049438
-0.00041809 -0.00051564 0.0073639
5.7673e-05 -0.00057432 0.0048514
9.2647e-05 -0.00058369 0.0045544
-0.00022892 -0.00011976 0.0048441
-0.00033937 -0.00024194 0.0057183
-0.00039403 -0.00059758 0.0063214
-0.00041646 -0.00033689 0.0056962
-0.00055276 -0.00069497 0.0067302
0.00043152 -0.00077218 0.0060519
-0.00055011 -0.00059682 0.0061732
-0.00012399 -0.00047227 0.0038977
-0.00022892 -0.00011976 0.0048441
0.00045476 -0.00062145 0.0049473
0.0019569 -0.00067738 0.012222
0.00011587 9.3501e-05 0.0042472
-0.0003702 -8.9447e-05 0.0051557
-0.00042344 -0.00034259 0.0057886
-0.00048207 -0.00043628 0.0059604
0.00052839 -0.00058442 0.0046187
-0.0010341 -0.00076747 0.0067367
-0.000578 -8.5366e-05 0.0055426
0.00051683 -0.00038529 0.0056674
0.00064121 -0.00030798 0.005799
0.00036426 -0.00051537 0.005293
-0.00068425 -0.00049914 0.0058666
-0.00069743 -0.00023472 0.0062883
-0.00055665 -0.00035047 0.0056976
-0.0014808 -0.00074634 0.0077552
-0.00047998 9.0001e-05 0.0060152
-0.00029621 6.091e-05 0.0049965
0.00082865 -0.00068091 0.0063045
0.0005031 -0.00064525 0.0058454
-0.00059798 -9.0912e-05 0.0058872
-0.00078777 -0.00038325 0.0064984
0.00055192 -0.00045135 0.0056337
-0.00078648 -0.0005692 0.0061537
0.0010021 -0.00081322 0.0067495
-0.004798 0.00036832 -0.029596
-0.00085155 -0.00022131 0.0063262
0.00054779 -0.00044628 0.0055989
-0.006661 -0.0023195 -0.041095
0.00073473 -0.0004446 0.0056835
0.00024967 0.0002259 0.0047563
-0.00062846 -0.00040068 0.0062854
-0.00086637 -0.00038152 0.0063703
0.00064059 -0.00059281 0.0058523
-0.0019652 -0.00090089 0.0097287
0.00051821 1.3078e-05 0.0054636
-0.0017084 -0.00052066 0.0085387
0.00063772 -0.00030614 0.0057616
-0.0010083 -0.00048371 0.0062838
0.00042931 0.00017427 0.0053637
-0.0004469 0.00021233 0.0057983
0.00065186 -3.1133e-06 0.0057081
0.00067562 -0.00017938 0.0056382
-0.00075439 0.00039807 -0.004529
-0.00059339 9.9195e-05 0.0056122
-0.00082514 -0.00013444 0.0064384
-0.00086427 -0.00022459 0.0064616
0.014563 0.0055709 0.090103
-0.00058848 9.8535e-05 0.0055957
0.00066596 -0.00022621 0.0045406
0.011902 0.0044583 0.073703
0.0007467 -0.00045111 0.0057859
0.00079486 -7.2918e-05 0.0050667
0.00079439 -0.000278 0.0056908
-4.4652e-05 -7.5757e-05 0.0011187
-0.00025577 0.00059424 0.0074734
-0.00080648 6.9549e-05 0.0061664
0.00076839 -6.6981e-06 0.0057352
-0.0023162 -0.00065219 0.011404
-8.0157e-06 0.00041225 0.0039938
-0.00050215 0.00032895 0.0052848
-0.00088137 -5.0185e-05 0.0057554
-0.0011961 -0.00010392 0.0067623
0.00065188 0.00019741 0.005928
-0.0011417 -0.00035031 0.0064986
-0.0010323 -0.00026493 0.0063629
-0.0012063 -0.00024327 0.0064686
-8.5965e-06 0.00037226 0.0035046
0.00053299 0.00034249 0.0053681
-0.00067906 0.00026783 0.0063529
-0.0010737 -9.3485e-05 0.0062738
-0.00067766 0.0002672 0.0063326
0.00085636 -8.4296e-05 0.0059151
-0.00090889 8.8463e-05 0.0055091
-0.00046412 0.00054823 0.0065944
0.00016404 0.00051586 0.0047161
-0.0010968 0.00043102 0.0064096
0.00045918 0.00051508 0.0054166
-0.00027115 0.00074283 0.007027
-0.0019747 4.1751e-05 0.0096757
-0.0012646 -0.0001156 0.0065771
-1.0895e-05 1.8582e-05 0.00038367
0.0055809 0.0035526 0.034566
0.00079884 0.00030139 0.0061271
0.0051569 0.00010555 0.032143
0.00014675 -2.2653e-05 0.003075
-0.0020783 0.0012079 0.010383
-0.00069795 0.00049422 0.0066098
-0.0011211 0.00011296 0.006303
-0.00035598 0.00071828 0.0062314
0.0099349 0.0026587 0.061487
-0.0008339 0.00035251 0.0065114
-1.5985e-05 4.7744e-05 0.00080029
0.00069238 -0.00036012 -0.0049034
-0.00035142 0.00070802 0.0061607
7.1148e-05 -0.0001062 -0.0020094
0.00089828 0.0003632 0.0059393
-0.00096733 8.9558e-05 0.0060745
0.00095928 3.0903e-05 0.0063016
-0.00094101 0.00024869 0.0063939
-0.0023272 0.00042935 0.011407
-0.00070228 0.00049698 0.0066467
0.00087057 0.00035365 0.0057929
-3.5051e-05 0.00031692 0.002409
0.00012399 0.00064228 0.0049725
-0.0012285 0.00023365 0.00639
0.00039004 0.00045239 0.0053867
-0.00066877 0.00065928 0.006799
-0.0014407 0.00075605 0.0097997
0.0069845 0.0043174 0.043974
-0.00047948 0.00068412 0.0061048
0.00054142 0.00034958 0.0040723
0.00092054 0.00018436 0.0061683
-0.00099163 0.00036868 0.006038
-0.00072706 0.00055004 0.005632
-0.0013795 0.00039867 0.0068605
-0.00021426 0.00029511 0.0046158
-0.0011104 0.00052902 0.0061051
0.00031036 0.00066483 0.0055115
-0.0011512 0.00046164 0.0058675
-0.001495 0.001027 0.0073752
0.00042943 0.00069353 0.0057354
-0.00040229 0.001002 0.0073966
0.00059039 0.0005938 0.0055158
-0.00034461 0.00084864 0.0061416
-0.0011431 0.00067958 0.0064478
-0.00097339 0.00073727 0.0063252
-0.0010991 0.00087568 0.0064703
-0.0011095 0.00088459 0.0065345
-0.00090204 0.000868 0.0068682
0.0011091 0.0009041 0.0072082
0.0011089 0.00090573 0.0071095
-0.0007098 0.00086273 0.0064266
0.00071776 0.00081051 0.0062528
-0.00045278 0.0007323 0.0051002
0.00070259 0.00079479 0.0058647
