0.00027944 -0.00027619 0.0040734
0.00032238 -0.00031797 0.0046214
0.00035108 -0.00034559 0.0049715
0.00038181 -0.00037516 0.0053463
0.00051212 -0.00050282 0.0070491
5.2574e-05 -0.00010535 0.0017493
0.0001313 -0.00024906 0.0038771
0.00011552 -0.00021937 0.0034084
0.00014574 -0.00027354 0.0041802
0.00015658 -0.00029242 0.0044305
0.00016424 -0.00030549 0.0045947
0.00014069 -0.00026226 0.0039444
0.00025682 -0.00046976 0.0068872
0.0001486 -0.0002753 0.0040914
0.00022384 -0.00040867 0.0059502
0.00018646 -0.00034143 0.0049791
0.00024446 -0.00044354 0.0063803
0.00019348 -0.00035255 0.0050893
0.00017062 -0.00031141 0.0044929
0.00025924 -0.00046646 0.0065937
0.00024776 -0.00044558 0.0062832
0.00018475 -0.00033442 0.0047453
0.00020123 -0.00036236 0.0050942
0.0003449 -0.00061167 0.0084104
0.00023945 -0.00042768 0.0059269
0.00017766 -0.00031967 0.0044619
0.00010342 -0.00019003 0.0027082
0.00046846 -0.00081502 0.010768
9.7681e-05 -0.00017859 0.002505
-8.6447e-05 -0.00019494 0.0022771
-0.00015137 -0.00037722 0.0042359
-0.00019463 -0.00049963 0.0055259
-0.00021149 -0.00054808 0.0060093
-0.00029145 -0.00077541 0.0084048
-0.00025149 -0.00066269 0.0071672
-0.00024382 -0.00064168 0.0069069
-0.00025617 -0.00067785 0.0072496
-0.00062055 -0.0017243 0.018162
-0.00019573 -0.00050457 0.0053888
-0.00022883 -0.00060109 0.0063486
-0.00027634 -0.00073964 0.0077354
-0.00030106 -0.00081233 0.0084416
-0.00023613 -0.00062402 0.0064853
-0.00025754 -0.0006876 0.0070891
-0.00030932 -0.00084048 0.0085879
-0.00024632 -0.00065599 0.0067029
-0.00025202 -0.00067381 0.0068402
-0.00026436 -0.00071137 0.0071716
-0.00016521 -0.0004179 0.0042428
-0.00048573 -0.0013787 0.013522
-0.0001468 -0.0003637 0.003656
-0.00028251 -0.00077536 0.007534
-0.002342 -0.0036508 0.04121
-0.00013342 -0.0001786 0.002096
-0.00039169 -0.00059019 0.0065565
-0.00053913 -0.00082587 0.0090818
-0.00032268 -0.00048052 0.00531
-0.00051523 -0.0007897 0.0085928
-0.00033459 -0.00050016 0.0054625
-0.00040457 -0.00061344 0.0066271
-0.0004157 -0.00063195 0.0067858
-0.000385 -0.00058283 0.0062343
-0.00042031 -0.00064069 0.0067999
-0.00049578 -0.00076396 0.0080397
-0.00039146 -0.00059454 0.0062581
-0.00040495 -0.00061718 0.0064521
-0.0006616 -0.001038 0.010694
-0.00038822 -0.00059027 0.0061223
-0.00035299 -0.00053302 0.0055065
-0.00058267 -0.00091243 0.0092563
-0.00059176 -0.00092796 0.0093756
-0.00034352 -0.00051789 0.0052772
-0.0004073 -0.00062446 0.0062833
-0.00059205 -0.00093253 0.009249
-0.00026084 -0.00038143 0.0038523
-0.0002315 -0.00033365 0.0033378
-0.0090055 0.019298 -0.18916
0.00014358 -0.0003217 0.0032633
0.00021271 -0.00046806 0.004658
0.00022228 -0.0004873 0.0048174
0.0004057 -0.00087527 0.0085139
0.00021956 -0.00048003 0.0047095
0.00021844 -0.00047649 0.0046485
0.00029104 -0.00062817 0.0060538
0.00023512 -0.00050962 0.0049136
0.00028079 -0.00060412 0.0057689
0.00024776 -0.00053399 0.0050906
0.00030204 -0.00064591 0.0060968
0.00026224 -0.00056206 0.0052995
0.00024152 -0.00051791 0.0048676
0.00030914 -0.00065649 0.0060972
0.00022695 -0.00048578 0.0045266
0.0003149 -0.00066535 0.0061074
0.00027327 -0.0005788 0.0053073
0.00035943 -0.00075386 0.006831
0.00026019 -0.00055007 0.0050038
0.00021232 -0.0004512 0.0041036
0.00017295 -0.00036962 0.0033547
0.0016425 -0.0033313 0.028703
-0.00015813 -0.00032101 0.002601
-0.00025553 -0.00054652 0.004334
-0.00019734 -0.00040747 0.0032479
-0.00019468 -0.00039822 0.0031624
-0.00023292 -0.00048393 0.0038029
-0.00020883 -0.00042524 0.0033424
-0.00031991 -0.00067798 0.0052403
0.00049569 0.0011962 -0.0088891
0.00016203 -0.00012021 0.0036548
0.00065945 -0.00049716 0.014199
0.00020846 -0.00015475 0.0046034
0.00025434 -0.00018899 0.0055342
0.0002321 -0.00017172 0.0050363
0.0002135 -0.00015722 0.0046165
0.00026606 -0.00019627 0.0056601
0.00030473 -0.00022483 0.0064143
0.00023102 -0.0001691 0.0048884
0.00023088 -0.00016851 0.0048501
0.00028271 -0.00020672 0.0058456
0.00027462 -0.00020021 0.0056514
0.0002994 -0.00021816 0.0061026
0.00018983 -0.00013627 0.0039312
0.00030658 -0.00022224 0.0061407
0.00024873 -0.00017897 0.0049992
0.00022136 -0.00015826 0.0044421
0.00020593 -0.00014637 0.0041124
0.00024355 -0.00017347 0.0047703
0.00018019 -0.00012647 0.0035631
0.00030843 -0.00021963 0.0058451
0.00013736 -9.4216e-05 0.0027172
-0.00042536 -0.00051907 0.0078074
-0.0010105 -0.0012722 0.018835
-0.0004907 -0.00060334 0.0089964
-0.00025235 -0.00029643 0.004477
-0.00048259 -0.00059549 0.0087588
-0.000306 -0.00036661 0.00543
-0.00057791 -0.00072184 0.010457
-0.00038521 -0.00047053 0.0068515
-0.00044262 -0.00054631 0.0078834
-0.00033653 -0.00040752 0.0058963
-0.00041809 -0.00051564 0.0073639
-0.00059978 -0.00075639 0.010661
-0.00034877 -0.00042453 0.0060443
-0.00040934 -0.00050563 0.0071156
-0.00041079 -0.00050815 0.0071112
-0.0004924 -0.00061779 0.008556
-0.00032338 -0.00039208 0.0054772
-0.00037331 -0.00045989 0.006341
-0.00062392 -0.00079853 0.010789
3.9702e-05 -0.00045302 0.0040358
4.5154e-05 -0.00049807 0.0044004
5.3673e-05 -0.00056924 0.0049874
7.2866e-05 -0.00073128 0.006348
4.6193e-05 -0.00050219 0.0043755
4.1806e-05 -0.00046255 0.0040142
6.521e-05 -0.00065488 0.0056028
6.0205e-05 -0.00061125 0.0052143
5.1948e-05 -0.00054107 0.004606
5.1523e-05 -0.00053498 0.0045294
8.1644e-05 -0.00077493 0.0064718
5.5434e-05 -0.00056292 0.0047154
5.3251e-05 -0.0005429 0.0045257
6.8217e-05 -0.00065789 0.0054263
6.5646e-05 -0.00063537 0.0052196
6.3171e-05 -0.00061363 0.0050195
5.2652e-05 -0.00052998 0.0043276
8.4976e-05 -0.00077315 0.0062139
7.6087e-05 -0.00070359 0.0056432
5.9913e-05 -0.0005794 0.0046471
2.4923e-05 -0.00031241 0.0025288
0.00016476 -0.001322 0.01014
2.2615e-05 -0.00019655 0.0016182
9.2647e-05 -0.00058369 0.0045544
0.00012339 -0.00075016 0.005807
7.821e-05 -0.0004975 0.0038803
0.00020655 -0.0011914 0.0091024
0.00033835 0.00022086 -0.0078399
0.00051794 0.00032879 -0.011899
-0.00025678 -0.00013631 0.0054988
-0.00022892 -0.00011976 0.0048441
0.00043058 0.00028079 -0.0098921
-0.00028085 -0.00015055 0.0059749
-0.00022225 -0.00011514 0.004639
-0.00029401 -0.0001594 0.0061992
-0.0023704 -0.0014393 0.052016
-0.00024891 -0.00013135 0.0051626
-0.00024965 -0.0001321 0.0051478
-0.00039578 -0.00022354 0.0083154
-0.00018325 -9.0828e-05 0.0036434
-0.0001543 -7.3069e-05 0.0029784
-0.00011451 -4.8605e-05 0.0020746
-8.8053e-05 -4.8577e-05 0.0014347
0.0028363 0.0021778 -0.052542
0.0010474 0.0008162 -0.019552
-0.00015564 -9.9024e-05 0.0026358
-0.00041678 -0.00029978 0.0073785
-0.00028959 -0.00020208 0.0050307
-0.00061443 -0.00045348 0.010892
-0.00041269 -0.00029738 0.0072123
-0.00042385 -0.00030625 0.0073842
-0.00063982 -0.00047467 0.01124
-0.000287 -0.00019961 0.0048753
-0.00033594 -0.00023824 0.0057183
-0.00067717 -0.00050688 0.011757
-0.000455 -0.00033201 0.0077844
-0.00028248 -0.00019605 0.0046991
-0.00037289 -0.00026808 0.0062589
-0.00049196 -0.00036312 0.0083161
-0.00033118 -0.00023508 0.0054738
-0.00033937 -0.00024194 0.005584
7.1712e-05 0.00014802 -0.0014715
-0.00038083 -0.00057329 0.0063723
-0.00051858 -0.00079355 0.0087313
-0.00031441 -0.00046748 0.0051696
-0.00050083 -0.00076682 0.008348
-0.00032553 -0.00048564 0.0053084
-0.00039374 -0.00059595 0.0064426
-0.00040366 -0.00061237 0.0065807
-0.00037693 -0.00056956 0.0060965
-0.00040881 -0.00062169 0.0066038
-0.00048479 -0.00074559 0.0078514
-0.00038247 -0.0005794 0.0061042
-0.00039432 -0.00059921 0.0062704
-0.00064447 -0.0010089 0.010401
-0.00037979 -0.00057571 0.0059771
-0.00034578 -0.00052039 0.0053819
-0.00056718 -0.0008855 0.0089912
-0.00057918 -0.00090568 0.0091578
-0.00033675 -0.00050572 0.0051595
-0.00039879 -0.00060908 0.0061357
-0.00057913 -0.00090908 0.0090251
-0.00018048 -0.00024679 0.0025232
-1.2441e-05 1.1559e-05 1.0288e-05
-0.0003817 -0.00030719 0.005557
-0.0005261 -0.00043207 0.0076989
-0.0003698 -0.00029664 0.0053249
-0.00044056 -0.00035806 0.0063503
-0.00045871 -0.00037383 0.0065898
-0.00039714 -0.00032018 0.0056471
-0.00051711 -0.00042491 0.0073852
-0.00041646 -0.00033689 0.0058756
-0.00057479 -0.0004756 0.0081613
-0.00037299 -0.00029855 0.0051864
-0.00037701 -0.00030212 0.0052122
-0.00057661 -0.00047807 0.0080623
-0.00055206 -0.00045637 0.0076786
-0.00040263 -0.0003243 0.0055033
-0.00041843 -0.00033834 0.0056962
-0.00061954 -0.00051688 0.0085215
-0.00042678 -0.00034556 0.0057597
-0.00035635 -0.00028292 0.0047323
-0.00034502 -0.00027293 0.0045379
0.0002801 0.00028735 -0.0041774
-0.00027589 -0.00032811 0.0032896
-0.0005519 -0.00069014 0.0067302
-0.00057946 -0.00072648 0.0070449
-0.00044164 -0.00054552 0.0052921
-0.00046883 -0.00058156 0.0055974
-0.00052078 -0.00065032 0.0062075
-0.00063891 -0.00080663 0.0076301
-0.00045378 -0.00056188 0.0053273
-0.00050893 -0.00063525 0.0059673
-0.00093359 -0.0011995 0.011092
-0.00044533 -0.00055066 0.0051451
-0.00054145 -0.00067893 0.0062698
-0.00060965 -0.00077015 0.0070555
-0.00066268 -0.00084119 0.0076572
-0.00049142 -0.00061239 0.0055855
-0.00061854 -0.00078298 0.0070576
-0.00068832 -0.00087682 0.0078485
-0.00055276 -0.00069497 0.0062225
-0.00065089 -0.00082725 0.0073373
-0.00065407 -0.00083178 0.0073419
-0.00085919 -0.0011087 0.009691
0.00038488 -0.00069557 0.0054928
0.00044705 -0.00080256 0.0062988
0.00043152 -0.00077218 0.0060519
0.00039693 -0.00070836 0.0055499
0.00048702 -0.00086274 0.0067086
0.00054175 -0.0009551 0.0073945
0.00037159 -0.00065664 0.005121
-0.00050816 -0.0005412 0.0061732
-0.00034346 -0.00035656 0.0040816
-0.00030767 -0.0003168 0.0036018
-0.001116 -0.0012331 0.013512
-0.00043986 -0.00046668 0.0051804
-0.0004869 -0.00052061 0.0057225
-0.00056636 -0.00061159 0.0066564
-0.00062608 -0.00068018 0.0073481
-0.00045024 -0.00047954 0.0051948
-0.00049696 -0.00053359 0.005722
-0.00070304 -0.00077089 0.0081497
-0.00052832 -0.0005702 0.0060395
-0.00052357 -0.00056521 0.0059503
-0.0010586 -0.0011842 0.012222
-0.0006496 -0.00071124 0.0073834
-0.00057727 -0.00062786 0.0065037
-0.00055011 -0.00059682 0.0061536
-0.0010636 -0.001195 0.012083
-0.00056364 -0.00061285 0.0062595
-8.3771e-05 -0.00029203 0.0025135
-0.00010546 -0.000391 0.0032949
-0.00018531 -0.0007596 0.0062488
-0.00012607 -0.00048334 0.0040089
-0.00011635 -0.00043677 0.0036147
-0.00012191 -0.00046119 0.0037864
-0.00034888 -0.0015168 0.012089
-0.00026925 -0.0011442 0.0091412
0.00033835 0.00022086 -0.0078399
0.00051794 0.00032879 -0.011899
-0.00025678 -0.00013631 0.0054988
-0.00022892 -0.00011976 0.0048441
0.00043058 0.00028079 -0.0098921
-0.00028085 -0.00015055 0.0059749
-0.00022225 -0.00011514 0.004639
-0.00029401 -0.0001594 0.0061992
-0.0023704 -0.0014393 0.052016
-0.00024891 -0.00013135 0.0051626
-0.00024965 -0.0001321 0.0051478
-0.00039578 -0.00022354 0.0083154
-0.00018325 -9.0828e-05 0.0036434
-0.0001543 -7.3069e-05 0.0029784
-0.00011451 -4.8605e-05 0.0020746
0.00014028 -0.00020557 0.0017586
0.00024239 -0.00034646 0.0028599
0.001259 -0.0017716 0.014074
0.00045676 -0.00064343 0.0051859
0.00035833 -0.0005025 0.0040673
0.00045285 -0.00063014 0.0050533
0.00047334 -0.00065509 0.0052361
0.00038775 -0.00053414 0.0042829
0.00040684 -0.00055657 0.0044435
0.00042605 -0.00057902 0.0046037
0.00056591 -0.00076393 0.0060137
0.00045568 -0.00061277 0.0048412
0.00052112 -0.00069656 0.0054693
0.0005133 -0.00068277 0.0053514
0.00045385 -0.00060073 0.0047138
0.00045175 -0.00059427 0.0046506
0.00069424 -0.00090702 0.0069987
0.00063643 -0.00082869 0.0063964
-0.010322 0.0037704 -0.063646
0.47673 -0.17332 2.9468
0.0019569 -0.00067738 0.012222
0.00013389 0.00010532 0.0049426
7.7272e-05 6.799e-05 0.0029598
9.5434e-05 7.9652e-05 0.003532
0.00035562 0.00024652 0.012134
0.00015252 0.00011656 0.0053844
9.7843e-05 8.1684e-05 0.0035518
0.00052791 0.00035217 0.017413
7.2053e-05 6.5741e-05 0.0026754
0.00019413 0.00014112 0.0064876
-0.00050634 -0.00028933 -0.015453
-0.00010543 -1.6019e-05 0.0013752
0.00032988 0.00010597 -0.0049406
-0.00037703 -9.1256e-05 0.005285
-0.0003702 -8.9447e-05 0.0051557
-0.00041972 -0.00010351 0.0058372
-0.00035297 -8.4713e-05 0.0048508
0.0017702 0.00052101 -0.025391
-0.00038007 -9.1984e-05 0.0052043
-0.00027239 -6.1307e-05 0.0036439
-0.00076273 -0.00020322 0.010509
-0.00087598 -0.00023612 0.01207
-0.00027577 -6.1886e-05 0.0036305
-0.0013779 -0.00038523 0.018908
-0.00047411 -0.00011987 0.0063408
-0.00047816 -0.00012119 0.0063657
-0.00062749 -0.00016553 0.0083902
0.0009859 0.00031415 -0.013764
-0.00033349 -7.7698e-05 0.0043238
-0.00023688 -4.9183e-05 0.0029637
-0.00015279 -0.00010932 0.0021274
-0.00039238 -0.00031572 0.0057111
-0.0005423 -0.00044514 0.0079335
-0.00037499 -0.00030056 0.0053973
-0.00044539 -0.00036161 0.0064162
-0.00046746 -0.00038082 0.0067138
-0.00040221 -0.00032411 0.0057174
-0.00052521 -0.0004314 0.0074989
-0.00042344 -0.00034259 0.005974
-0.00058597 -0.00048487 0.0083197
-0.000379 -0.00030355 0.0052713
-0.00038097 -0.00030539 0.0052674
-0.00058729 -0.00048719 0.0082133
-0.00055929 -0.00046254 0.0077803
-0.00040725 -0.0003283 0.0055682
-0.00042497 -0.0003441 0.0057886
-0.0006301 -0.00052625 0.0086708
-0.0004324 -0.00035061 0.0058392
-0.00036 -0.00028629 0.0047842
-0.00035114 -0.00027857 0.0046245
0.00029043 0.0002967 -0.0043226
-0.00019225 -0.0001586 0.0023651
-0.00042414 -0.00038083 0.0053913
-0.00056056 -0.0005118 0.0071511
-0.00049123 -0.00044517 0.0062138
-0.00047199 -0.00042669 0.0059322
-0.00041691 -0.00037362 0.0051859
-0.00094334 -0.00088248 0.011945
-0.00047003 -0.00042464 0.0058226
-0.00051433 -0.00046762 0.0063586
-0.00049242 -0.00044641 0.0060473
-0.00050415 -0.00045787 0.0061644
-0.00061311 -0.00056403 0.0075111
-0.00044325 -0.00039846 0.0053378
-0.00089672 -0.00084163 0.010991
-0.00049925 -0.00045294 0.0059886
-0.00042846 -0.00038372 0.0050733
-0.00067133 -0.00062225 0.0080469
-0.00058108 -0.00053357 0.0069018
-0.0004598 -0.0004143 0.0053779
-0.00047292 -0.00042738 0.0055037
0.009915 0.0098415 -0.12071
-0.00023423 -0.00019153 0.0025411
-7.238e-05 8.1516e-05 -0.00050475
0.00047917 -0.0005515 0.004442
0.00024116 -0.00027285 0.0022442
0.00085133 -0.00095623 0.0075097
0.0005284 -0.00059072 0.0046803
0.00064271 -0.00071498 0.005623
0.00052207 -0.00057756 0.004557
0.00061788 -0.00068001 0.0053269
0.00052837 -0.00057813 0.0045377
0.00049764 -0.00054087 0.0042407
0.00081287 -0.00087973 0.0067887
0.00096423 -0.0010404 0.0079884
-0.0011175 -0.00084187 0.0074898
-0.00085333 -0.00063166 0.0056472
-0.00095456 -0.00070975 0.0062999
-0.0010806 -0.00080733 0.0071182
-0.00074466 -0.00054141 0.0048166
-0.0014908 -0.0011252 0.0097685
-0.0012754 -0.00095467 0.0083006
-0.00098758 -0.00072761 0.0063551
-0.00034371 -4.8339e-05 0.0036094
-0.00026548 -3.3908e-05 0.0027225
-0.00033964 -4.7075e-05 0.0034839
-0.00050511 -7.6878e-05 0.0052126
-0.00050698 -7.691e-05 0.0052008
-0.00068548 -0.00010918 0.0070493
-0.00076539 -0.00012346 0.0078574
-0.00048439 -7.176e-05 0.0048879
-0.00049169 -7.2794e-05 0.004931
-0.0010355 -0.00017226 0.010519
-0.00081184 -0.00013088 0.0081845
-0.00050628 -7.4418e-05 0.0050125
-0.00065228 -0.00010099 0.006472
-0.00058103 -8.755e-05 0.0057149
-0.001044 -0.00017269 0.01037
-0.0004437 -6.1523e-05 0.0042751
-0.00070744 -0.00011002 0.0068852
-0.0010696 -0.00017681 0.010469
-0.000578 -8.5366e-05 0.0055426
0.00018338 -0.00013703 0.0023234
0.00061241 -0.0004648 0.0073907
0.00024281 -0.00018174 0.0029778
0.0007491 -0.0005675 0.0088439
0.00066065 -0.00049964 0.0077863
0.00042106 -0.00031664 0.0049845
0.00053238 -0.00040092 0.0062268
0.00042863 -0.00032156 0.0050097
0.00069306 -0.00052198 0.0079659
0.00045571 -0.00034134 0.0052605
0.00044461 -0.00033245 0.0051005
0.00051575 -0.00038588 0.0058538
0.0004923 -0.00036766 0.0055602
0.00053569 -0.00040001 0.0059994
0.0004753 -0.00035391 0.0053072
0.00059509 -0.00044387 0.0065635
0.000509 -0.00037846 0.0056049
0.00051791 -0.0003847 0.0056631
0.0005222 -0.00038745 0.0056717
0.00051347 -0.0003804 0.0055428
0.00074103 -0.00055093 0.0078776
0.00049823 -0.00036812 0.0053242
0.00073418 -0.00054466 0.0077149
0.00057435 -0.00042436 0.0060433
0.00050502 -0.00024385 0.0048505
-0.0001655 8.9067e-05 -0.0014488
0.00031375 -0.00014854 0.003059
-0.016038 0.0079635 -0.14994
0.00055929 -0.00026984 0.0053264
0.00074669 -0.00036247 0.0070355
0.00050801 -0.00024383 0.0047933
0.00075907 -0.00036794 0.007063
0.00067617 -0.00032656 0.0062732
0.00052553 -0.00025164 0.0048705
0.00063813 -0.00030707 0.005849
0.00066368 -0.0003194 0.006043
0.00064121 -0.00030798 0.0058083
0.00064414 -0.00030912 0.005799
0.00065406 -0.0003137 0.0058505
0.00069422 -0.00033324 0.0061653
0.00065794 -0.000315 0.0058153
0.00064709 -0.00030933 0.0056856
0.00063737 -0.00030421 0.0055657
0.00081304 -0.00039059 0.0070206
0.00060837 -0.0002893 0.0052563
0.00087979 -0.00042284 0.0074931
0.00087031 -0.00041785 0.0073797
0.00059478 -0.00028172 0.0050574
-7.0179e-05 4.6109e-05 -0.00040749
0.00032032 -0.00046487 0.0050475
0.00030101 -0.00043629 0.0047196
0.00031294 -0.00045248 0.0048624
0.00028261 -0.00040825 0.0043741
0.00040658 -0.00058398 0.0061641
0.00034073 -0.00048947 0.0051654
0.00034834 -0.00049937 0.0052396
0.00036846 -0.00052698 0.0054932
0.0003544 -0.00050621 0.0052558
0.00039205 -0.00055844 0.0057535
0.00033506 -0.00047726 0.0049137
0.0004866 -0.00068936 0.0069928
0.00036941 -0.000524 0.0053301
0.00038721 -0.000548 0.0055377
0.00034494 -0.00048795 0.0049212
0.00053602 -0.00075365 0.0074727
0.00041662 -0.00058639 0.0058281
0.00036006 -0.00050675 0.0050324
0.00045009 -0.00063079 0.006188
0.00044311 -0.00062021 0.0060589
0.00044806 -0.00062613 0.0060859
0.00025799 -0.00036235 0.0035678
-0.0002573 -0.000173 0.0023324
-0.00088715 -0.00065796 0.0083399
-0.00050266 -0.00036148 0.0046324
-0.00073178 -0.00053817 0.0067765
-0.00056544 -0.00040953 0.0051707
-0.00062222 -0.00045332 0.0056721
-0.00064649 -0.00047197 0.0058666
-0.00077218 -0.00056926 0.007005
-0.00065099 -0.00047509 0.0058487
-0.0005932 -0.00043009 0.0052818
-0.00097486 -0.00072675 0.0087514
-0.00078872 -0.00058173 0.0070176
-0.00054927 -0.00039514 0.0048017
-0.00079839 -0.00058932 0.0070228
-0.00085671 -0.0006347 0.0075161
-0.00066987 -0.00048861 0.0058054
-0.00065495 -0.00047684 0.0056376
-0.00090583 -0.00067316 0.0078325
-0.00089651 -0.00066571 0.0077179
-0.00068425 -0.00049914 0.0058126
-0.00076249 -0.00056047 0.0064643
-0.00092939 -0.00069149 0.0078875
2.7806e-05 6.1895e-05 -0.00043817
-0.00045634 -0.00014661 0.0042765
-0.000695 -0.00023278 0.0065474
-0.00042816 -0.00013653 0.0039504
-0.00060976 -0.00020263 0.0056491
-0.00086223 -0.00029472 0.0080129
-0.00064749 -0.00021648 0.0059519
-0.00081143 -0.00027661 0.0074633
-0.00060976 -0.00020278 0.0055407
-0.0009955 -0.00034485 0.0091071
-0.00053019 -0.00017352 0.0047473
-0.0012765 -0.00044978 0.011611
-0.0007151 -0.00024192 0.0064053
-0.00064994 -0.00021789 0.0057744
-0.00086265 -0.00029728 0.0076845
-0.00069986 -0.00023667 0.0061713
-0.00067692 -0.00022827 0.0059302
-0.00084764 -0.00029251 0.0074357
-0.0009102 -0.00031618 0.0079654
-0.00086447 -0.0002991 0.0075246
-0.00030491 -8.8038e-05 0.0024768
-0.00016996 -9.1492e-05 0.0016959
-0.00086707 -0.00055915 0.0092093
0.00095091 0.00066197 -0.010432
-0.00030063 -0.00017813 0.0030607
-0.00055627 -0.00035042 0.005762
-0.0031664 -0.0021124 0.033505
-0.00045025 -0.00027836 0.0045929
-0.0005027 -0.00031391 0.0051138
-0.00096777 -0.0006293 0.0099686
-0.00055704 -0.00035051 0.0056332
-0.00055388 -0.00034841 0.0055672
-0.00065125 -0.00041477 0.0065446
-0.0014102 -0.00093261 0.014351
-0.00046146 -0.00028493 0.0045378
-0.00068179 -0.00043575 0.0067601
-0.00063831 -0.000406 0.0062842
-0.00069945 -0.000448 0.0068719
-0.00055534 -0.000349 0.0053814
-0.00054394 -0.00034125 0.0052316
-0.00061554 -0.00039074 0.0059121
-0.0015985 -0.00079989 0.00891
-0.0014902 -0.00074634 0.0082644
-0.0011111 -0.00055076 0.0060924
-0.0013942 -0.00070364 0.0076446
-0.0017243 -0.00088212 0.0094542
-0.0025326 -0.0013162 0.013919
-0.00049163 -0.00023479 0.0024967
-0.0014808 -0.00079046 0.0077552
0.0024115 0.0013915 -0.013008
-0.00062081 0.00011041 0.0082501
-0.00086964 0.00015091 0.011591
-0.00037882 7.173e-05 0.004928
-0.000431 8.0368e-05 0.0055985
-0.0007991 0.00013993 0.010494
-0.00032871 6.4364e-05 0.0041826
-0.00071479 0.00012663 0.009272
-0.00044139 8.2941e-05 0.0056254
-0.0003865 7.4348e-05 0.0048705
-0.00087926 0.00015341 0.011291
-0.00050922 9.4459e-05 0.006427
-0.00047998 9.0001e-05 0.0060152
-0.00051104 9.5163e-05 0.006386
-0.00034224 6.8486e-05 0.0041742
0.0020877 -0.00031719 -0.026959
-9.1113e-05 2.3676e-05 0.0014547
-0.0011105 0.00018482 0.019859
-0.00046976 8.4404e-05 0.0082569
-0.0007908 0.00013592 0.014013
-0.00022829 4.7264e-05 0.0038623
-0.00042028 7.8783e-05 0.0072633
-0.0025257 0.00041954 0.044737
-0.00028544 5.8055e-05 0.0048214
-0.00030697 6.2261e-05 0.0051716
0.0012273 -0.0001893 -0.0219
-0.00035645 7.132e-05 0.0060119
-0.00023985 5.2797e-05 0.0039288
-0.000276 5.9559e-05 0.0045267
-0.00012871 3.58e-05 0.0019152
0.0007346 -0.00060541 0.0060209
0.00083946 -0.00069191 0.0068304
0.00083107 -0.00068459 0.0067302
-0.00033546 0.00028112 -0.0025576
0.00076923 -0.00063336 0.0062574
0.00071794 -0.00059052 0.0058141
0.00068076 -0.00055937 0.0054841
0.00083698 -0.00068817 0.0066775
0.00075719 -0.00062184 0.0060189
0.00071666 -0.00058796 0.0056681
0.00072156 -0.00059161 0.0056696
0.00083628 -0.00068591 0.0065132
0.00082623 -0.00067723 0.0064014
0.00070546 -0.00057724 0.0054496
0.00088239 -0.00072267 0.0067438
0.0008569 -0.00070128 0.0065177
0.00083768 -0.00068507 0.0063387
0.00076483 -0.0006247 0.005763
0.00096114 -0.00078581 0.0071669
0.00086137 -0.00070336 0.0064026
0.00084826 -0.00069219 0.0062703
0.00088112 -0.00071879 0.0064699
0.00097357 -0.00079431 0.0070956
0.0010873 -0.00088732 0.0078705
0.00073789 -0.00060012 0.0053536
0.00042315 -0.00034124 0.0030754
0.00020244 -0.00026364 0.0025837
0.00041078 -0.00053029 0.0050225
0.00044897 -0.00057846 0.0054373
0.00047466 -0.00061057 0.0057026
0.0004414 -0.00056728 0.00528
0.0005031 -0.00064525 0.0059564
0.00041802 -0.000536 0.0049442
0.00060973 -0.00077918 0.0070879
0.00051854 -0.00066249 0.006022
0.00041699 -0.00053274 0.0048433
0.00051337 -0.00065408 0.0058792
0.00053461 -0.00068019 0.0060778
0.00059696 -0.00075823 0.006727
0.00050126 -0.00063657 0.005645
0.00062782 -0.00079539 0.0069808
0.00047991 -0.00060823 0.0053485
0.00052995 -0.00067034 0.0058454
0.00055934 -0.00070644 0.0061198
0.00062077 -0.00078271 0.0067309
0.002707 -0.0033965 0.028559
0.00030701 -0.00038829 0.0033876
-0.00035274 -4.8517e-05 0.0036214
-0.0005049 -7.5648e-05 0.0052078
-0.00051005 -7.644e-05 0.0052307
-0.00068758 -0.00010833 0.0070683
-0.00080079 -0.00012865 0.0082251
-0.00047934 -7.0257e-05 0.0048338
-0.00049907 -7.3724e-05 0.0050061
-0.001093 -0.00018202 0.011111
-0.00082786 -0.00013338 0.0083488
-0.00050453 -7.4014e-05 0.0049943
-0.00065304 -0.00010119 0.0064793
-0.00059798 -9.0912e-05 0.0058872
-0.0010223 -0.00016924 0.010151
-0.00044793 -6.2748e-05 0.0043183
-0.00072592 -0.00011434 0.0070717
-0.001117 -0.00018712 0.010944
-0.00056969 -8.4788e-05 0.0054621
-0.00032376 -0.00014426 0.0027973
-0.0018262 -0.0009111 0.016319
-0.00042056 -0.00019341 0.0036253
-0.00050774 -0.00023823 0.0043691
-0.00099144 -0.00048687 0.0086253
-0.00061618 -0.00029387 0.0052773
-0.00068563 -0.00032978 0.0058551
-0.00066565 -0.00031956 0.0056476
-0.00079707 -0.00038768 0.0067587
-0.00063239 -0.00030241 0.005299
-0.00078777 -0.00038325 0.0066046
-0.0010526 -0.00052116 0.0088442
-0.00072524 -0.00035066 0.0060136
-0.00079728 -0.00038837 0.0065934
-0.00078993 -0.00038463 0.0064984
-0.00087692 -0.00043029 0.0071991
-0.00073553 -0.00035625 0.0059786
-0.00088676 -0.00043583 0.0072088
-0.0013099 -0.00065862 0.010697
-0.00052551 -0.00024561 0.004151
-0.0013015 -0.00065581 0.0105
-0.00101 -0.00050168 0.0080775
4.1551e-05 5.5757e-05 -0.0005224
0.0004551 -0.00037984 0.0050673
0.00049891 -0.00041606 0.0055064
0.00045471 -0.00037833 0.0049968
0.00056657 -0.00047152 0.0061539
0.00046646 -0.00038706 0.005059
0.00052366 -0.00043428 0.0056246
0.00058582 -0.00048559 0.0062385
0.00052628 -0.00043529 0.0055861
0.00059914 -0.00049541 0.0063016
0.00046385 -0.00038211 0.00488
0.00067432 -0.00055648 0.006981
0.00057651 -0.00047463 0.0059587
0.00049303 -0.00040471 0.0050841
0.00055436 -0.00045488 0.0056571
0.00058001 -0.00047547 0.0058738
0.00059879 -0.00049036 0.0060216
0.00056375 -0.00046078 0.0056429
0.00069048 -0.00056467 0.0068331
0.00054947 -0.00044782 0.0054388
0.00059166 -0.00048188 0.0058035
0.00043224 -0.0003501 0.0042487
0.00039636 -0.00031987 0.0038645
-0.00068791 -0.00049134 0.0056613
-0.00068255 -0.00048756 0.0055836
-0.00049147 -0.00034374 0.0039479
-0.00048858 -0.00034196 0.0038869
-0.00076275 -0.00055038 0.0061103
-0.00072748 -0.00052384 0.0057885
-0.00078163 -0.00056536 0.006197
-0.00079133 -0.00057304 0.0062429
-0.00079672 -0.00057744 0.0062534
-0.00085901 -0.00062539 0.0067212
-0.00074839 -0.00054091 0.0058028
-0.0015926 -0.0011893 0.012487
-0.00071014 -0.00051159 0.005449
-0.00071373 -0.0005147 0.005442
-0.0020248 -0.0015261 0.015696
-0.00068564 -0.00049304 0.0051739
-0.00086271 -0.00063028 0.0065175
-0.00098644 -0.00072638 0.0074426
-0.00099777 -0.00073545 0.007497
-0.00099825 -0.00073611 0.0074676
-0.0013381 -0.0010005 0.010036
-0.00081422 -0.00059328 0.0060041
0.00094284 -0.00076833 0.0066153
0.00082327 -0.00067003 0.0057561
-0.00025468 0.00021235 -0.0016396
0.00069468 -0.00056472 0.0048893
0.00082999 -0.00067505 0.0057817
0.00077332 -0.00062826 0.0053586
0.001008 -0.00081979 0.0069123
0.0010089 -0.00082009 0.0068836
0.00075852 -0.00061509 0.0051694
0.0010865 -0.00088255 0.0073137
0.00091013 -0.00073813 0.0061115
0.00091579 -0.00074233 0.006112
0.00093604 -0.00075842 0.0062076
0.0010471 -0.00084853 0.0068919
0.00099619 -0.00080665 0.0065275
0.00092745 -0.00075023 0.0060491
0.0011047 -0.0008941 0.0071419
0.0039181 -0.0031837 0.024936
0.0026936 -0.0021867 0.017158
0.001604 -0.0012997 0.010245
0.0016488 -0.0013357 0.010494
0.0013467 -0.0010896 0.0085644
0.0015444 -0.00125 0.0097658
0.0015229 -0.0012321 0.0095982
-0.004798 0.00036832 -0.029596
-0.0055572 0.00042 -0.034315
0.0069658 -0.000507 0.043145
-0.019039 0.0014228 -0.11768
0.0025361 -0.00018174 0.015732
-0.0010969 -0.0002903 0.0085876
-0.00066173 -0.00016806 0.0051069
-0.00045096 -0.0001087 0.0034093
-0.00044789 -0.0001077 0.0033478
-0.00056209 -0.00013981 0.0041947
-0.00086163 -0.00022444 0.0064586
-0.00086417 -0.00022497 0.0064463
-0.0007715 -0.00019848 0.0057097
-0.00084146 -0.00021818 0.0062061
-0.00083724 -0.0002168 0.0061419
-0.00093513 -0.0002445 0.0068427
-0.00089742 -0.00023356 0.0065293
-0.0010253 -0.00026988 0.0074461
-0.00074183 -0.00018868 0.0053171
-0.00097192 -0.00025438 0.006975
-0.00092136 -0.00023971 0.0065722
-0.0010531 -0.00027732 0.0074991
-0.0008053 -0.00020598 0.0056675
-0.00079106 -0.00020172 0.0055296
-0.0012011 -0.00031967 0.0084377
-0.00081165 -0.00020721 0.0056198
-0.0014015 -0.00037738 0.0097791
-0.0001879 0.00016101 -0.0018985
0.00045284 -0.00037859 0.0050459
0.00049742 -0.00041547 0.0054935
0.00045057 -0.00037541 0.0049551
0.00056459 -0.00047049 0.0061358
0.00046441 -0.00038581 0.0050395
0.00052099 -0.00043252 0.0055989
0.00058283 -0.00048358 0.0062097
0.00052376 -0.00043357 0.0055619
0.00059733 -0.00049428 0.0062849
0.00046117 -0.00038013 0.0048539
0.00067024 -0.00055339 0.0069411
0.00057463 -0.00047327 0.0059408
0.00049105 -0.0004032 0.005065
0.00055172 -0.00045278 0.0056314
0.00057663 -0.00047271 0.0058408
0.00059737 -0.00048917 0.0060079
0.00056163 -0.00045896 0.0056223
0.00068568 -0.00056058 0.0067863
0.00054779 -0.00044628 0.0054221
0.00058959 -0.00047996 0.0057831
0.00042941 -0.00034754 0.004221
0.00039553 -0.0003189 0.0038555
-0.028746 -0.010131 -0.17743
-0.006661 -0.0023195 -0.041095
0.0071322 0.0025311 0.044106
-0.01754 0.01088 -0.14255
0.00045444 -0.00027526 0.0037739
-0.00027757 0.00017826 -0.0021311
-9.6931e-05 6.6557e-05 -0.00067264
0.00025243 -0.00014966 0.0021483
0.00078579 -0.00047919 0.0063864
0.00075576 -0.00046012 0.006113
0.00071662 -0.00043543 0.0057682
0.00069071 -0.00041892 0.0055288
0.00083098 -0.00050495 0.0065902
0.00075599 -0.00045821 0.0059725
0.00073473 -0.0004446 0.0057726
0.00074303 -0.00044919 0.0058002
0.00077397 -0.00046771 0.0059999
0.00081714 -0.00049373 0.006291
0.00071488 -0.00043039 0.0054845
0.00091039 -0.00054986 0.0069091
0.00088778 -0.00053549 0.0067059
0.0007078 -0.00042463 0.0053384
0.00081164 -0.0004877 0.006062
0.00096087 -0.0005785 0.0071128
0.00070352 -0.00042056 0.0052097
0.00059824 -0.00035564 0.0044094
0.00078307 -0.00046789 0.0056835
0.00065002 -0.00038617 0.0047017
0.00075797 -0.00045137 0.0054151
0.00069456 -0.0004122 0.0049328
8.4301e-05 9.0077e-05 0.0018837
0.00016284 0.00015522 0.0034037
0.00022627 0.00020751 0.0046107
0.00025425 0.00023039 0.0051196
0.00026879 0.00024216 0.0053657
0.00017453 0.00016483 0.003526
0.00033933 0.00029857 0.0066005
0.00021425 0.00019701 0.0042192
0.00022528 0.00020567 0.0043866
0.00033546 0.0002939 0.0063764
0.00031595 0.00027812 0.0059863
0.0002451 0.0002214 0.004665
0.00025733 0.00023088 0.0048476
0.00032002 0.00028025 0.0059283
0.00031398 0.00027529 0.0057862
8.9048e-05 9.7661e-05 0.0017397
-0.0036378 -0.0024073 0.038609
-0.0006113 -0.00038474 0.0063298
-0.0028908 -0.0019131 0.030487
-0.00049448 -0.00030654 0.0050495
-0.00053853 -0.00033675 0.0054811
-0.0010054 -0.00065251 0.010347
-0.00061591 -0.00038955 0.0062411
-0.00059734 -0.0003775 0.0060153
-0.00070941 -0.00045426 0.0071452
-0.0013423 -0.00088636 0.01365
-0.00050559 -0.00031563 0.0049933
-0.00073221 -0.00047149 0.0072824
-0.00068602 -0.00044029 0.0067788
-0.0007327 -0.00047298 0.0072211
-0.00059546 -0.00037883 0.0057983
-0.00056278 -0.00035684 0.0054344
-0.00064101 -0.0004118 0.0061836
-0.00025142 -0.0001416 0.0022132
-0.00072858 -0.00031637 0.0056611
-0.0009656 -0.00042667 0.0075108
-0.00078261 -0.00034149 0.0060321
-0.00084488 -0.00037062 0.0064901
-0.00098254 -0.000435 0.007537
-0.00087562 -0.00038503 0.0066709
-0.0007377 -0.00032048 0.0055658
-0.0011708 -0.00052389 0.008881
-0.00076237 -0.00033199 0.0057019
-0.00081551 -0.00035711 0.0060755
-0.00085078 -0.00037384 0.0063112
-0.00097211 -0.00043125 0.0071992
-0.00086682 -0.00038152 0.0063703
-0.00078158 -0.00034124 0.0056947
-0.001359 -0.00061548 0.0099806
-0.00091068 -0.00040249 0.0066049
-0.00077851 -0.00033971 0.0055885
-0.00086637 -0.00038173 0.006202
-0.0011761 -0.00052981 0.0084434
-0.0010916 -0.00048944 0.0077921
0.00054391 0.00029401 -0.004143
0.00028339 -0.0002633 0.0028684
0.00057043 -0.00053103 0.0055925
0.00048904 -0.00045456 0.004779
0.00065204 -0.00060615 0.0062881
0.00057057 -0.00052974 0.0054859
0.00060499 -0.00056133 0.0057724
0.00064129 -0.00059465 0.0060744
0.00060067 -0.00055641 0.005664
0.00061764 -0.0005717 0.0057836
0.00062185 -0.00057514 0.0057859
0.00068707 -0.0006352 0.0063402
0.0006399 -0.00059098 0.0058801
0.00065773 -0.00060703 0.006003
0.00068882 -0.00063534 0.0062426
0.00073434 -0.000677 0.0066081
0.00064914 -0.00059771 0.0058245
0.00073405 -0.00067571 0.0065269
0.0006328 -0.00058169 0.0056132
0.00085169 -0.00078325 0.0074567
0.00075136 -0.00069022 0.0065634
0.0007344 -0.0006741 0.0063823
-0.00017633 0.00016514 -0.0013079
-0.001253 -0.00054393 0.0063603
-0.0015624 -0.00069137 0.0079238
-0.0023064 -0.0010402 0.011716
-0.001652 -0.00074239 0.0083298
-0.0019735 -0.00089859 0.0099403
-0.0018032 -0.00082421 0.0090418
-0.0019652 -0.00090689 0.0098323
-0.0018464 -0.00085596 0.0091995
-0.0020343 -0.00095223 0.010116
-0.0016276 -0.00076118 0.0080376
-0.0022181 -0.0010556 0.010964
-0.0021473 -0.0010266 0.010579
-0.0018812 -0.00090089 0.0092209
-0.0020692 -0.0010005 0.010123
-0.0019962 -0.00096977 0.0097287
0.00031754 1.1203e-05 0.0035439
0.00051104 1.0892e-05 0.0055936
0.00038713 1.1511e-05 0.0042334
-0.00020804 1.3889e-05 -0.0020886
0.00041748 1.2189e-05 0.0045699
0.00043552 1.236e-05 0.0047261
0.00060867 1.1954e-05 0.0065155
0.00067485 1.1936e-05 0.0071759
0.00042486 1.3204e-05 0.0045365
0.00068064 1.2296e-05 0.0071437
0.00059202 1.2951e-05 0.0062001
0.00044901 1.3882e-05 0.0047035
0.00053331 1.3673e-05 0.0055212
0.00052539 1.3948e-05 0.0054059
0.00054996 1.4038e-05 0.0056155
0.00044988 1.4863e-05 0.0045855
0.00054973 1.4456e-05 0.0055295
0.00076538 1.3267e-05 0.0075979
-0.0016214 -0.00048356 0.008189
-0.0018193 -0.00054916 0.0091703
-0.0017208 -0.00052072 0.0086348
-0.0017084 -0.00051972 0.0085387
-0.0014739 -0.00044716 0.007316
-0.0016905 -0.00052066 0.0083754
-0.0017432 -0.00054096 0.0086073
-0.0014891 -0.00046044 0.0072999
-0.0023522 -0.0007499 0.011572
0.00019068 -8.8307e-05 0.001934
0.00030995 -0.00014738 0.0030258
-0.018759 0.009355 -0.17553
0.00055878 -0.00027077 0.0053257
0.00074165 -0.00036142 0.0069939
0.00050384 -0.00024264 0.004758
0.00074952 -0.0003644 0.0069799
0.00067492 -0.00032692 0.0062653
0.00052147 -0.00025028 0.0048363
0.00062981 -0.00030362 0.0057768
0.00066105 -0.00031869 0.0060217
0.0006371 -0.0003064 0.0057738
0.00063833 -0.00030659 0.0057493
0.00064539 -0.00030966 0.0057757
0.00069176 -0.00033217 0.0061445
0.00065509 -0.00031362 0.0057911
0.00064026 -0.00030587 0.0056271
0.00063162 -0.00030117 0.0055162
0.00080885 -0.00038816 0.0069841
0.00060508 -0.00028728 0.0052275
0.00086678 -0.00041576 0.0073824
0.00086704 -0.00041547 0.0073501
0.00058928 -0.00027835 0.0050099
-6.6597e-05 4.4311e-05 -0.00037754
-0.00039765 -0.00017527 0.0026555
-0.00075623 -0.0003553 0.0051152
-0.001189 -0.00057287 0.0080755
-0.00089804 -0.00042658 0.0060388
-0.00080298 -0.00037879 0.0053532
-0.0013743 -0.00066724 0.0092153
-0.00088885 -0.00042208 0.0058842
-0.00082423 -0.00038951 0.0054129
-0.0011224 -0.00054072 0.0073835
-0.0011532 -0.00055642 0.0075574
-0.000947 -0.0004518 0.0061496
-0.00080842 -0.00038145 0.0051948
-0.0014668 -0.00071711 0.0095011
-0.0010697 -0.00051464 0.0068596
-0.00098917 -0.00047362 0.0062985
-0.0010927 -0.00052671 0.0069386
-0.0011271 -0.00054442 0.0071277
-0.0010118 -0.00048544 0.0063494
-0.0010048 -0.00048198 0.0062692
-0.0011458 -0.00055461 0.007135
-0.0010149 -0.00048738 0.0062678
-0.00094783 -0.00045297 0.005807
0.00025679 0.00010929 0.0033836
-0.00052121 -0.00017487 -0.006469
0.00054424 0.00021535 0.007019
0.00047504 0.00019023 0.0061131
0.0004162 0.00016893 0.0053413
0.00046582 0.00018715 0.0059266
0.00042353 0.00017194 0.0053691
0.00036657 0.00015144 0.0046333
0.00042931 0.00017427 0.0053637
0.00048613 0.00019491 0.0060176
0.00041416 0.00016915 0.0051169
0.00044978 0.00018209 0.0055072
0.00051195 0.00020452 0.0062098
0.00045157 0.00018307 0.0054635
0.00041094 0.0001687 0.0049518
0.00041238 0.00016934 0.0049315
0.00081882 0.00031379 0.009573
0.00032304 0.00013808 0.0038517
0.00044039 0.00017966 0.0051426
-0.00014276 7.1244e-05 0.0018055
-0.00021221 0.00010325 0.0027279
-0.00026489 0.00012783 0.0034126
-0.00050111 0.00023585 0.006581
-0.00035931 0.00017197 0.0046358
-0.00078038 0.00036496 0.010253
-0.00068089 0.0003201 0.0088929
-0.0003927 0.00018881 0.0050156
-0.00055745 0.00026514 0.0071711
-0.00087401 0.00041145 0.011328
-0.00071988 0.0003411 0.0092645
-0.00035424 0.00017318 0.0044189
-0.00058199 0.00027926 0.0073649
-5.8088e-05 3.6251e-05 0.00055357
0.00054835 -4.0111e-06 0.0051913
0.00077067 -1.0275e-05 0.0072192
-0.0018239 6.683e-05 -0.016723
0.00067703 -6.8174e-06 0.0063379
0.00055707 -2.9675e-06 0.0052024
0.00065801 -5.6839e-06 0.0060896
0.0005818 -3.1133e-06 0.0053647
0.00057415 -2.5944e-06 0.0052612
0.00071119 -6.4394e-06 0.0064526
0.00070634 -6.0004e-06 0.0063761
0.00058712 -2.0883e-06 0.0052876
0.00075859 -7.0322e-06 0.0067581
0.00052924 2.7743e-07 0.0047202
0.00062432 -2.363e-06 0.005507
0.00065186 -2.9269e-06 0.0057081
0.00073635 -5.2594e-06 0.0063944
0.00064961 -2.2722e-06 0.0056228
0.00067093 -2.6523e-06 0.0057663
0.00046528 4.0739e-06 0.0040034
0.00081812 -6.7787e-06 0.0068873
0.00074116 -4.0543e-06 0.0062185
0.00025707 -6.3183e-05 0.0023877
0.00051028 -0.00013453 0.0045925
0.00052924 -0.00013951 0.0047238
0.00081853 -0.00022097 0.0072094
0.0005993 -0.0001586 0.0052766
0.00055441 -0.00014553 0.0048551
0.00067562 -0.00017938 0.0058553
0.00068781 -0.00018244 0.0059247
0.00059344 -0.00015543 0.0050939
0.00068856 -0.00018186 0.0058548
0.00071934 -0.00019015 0.0060762
0.00072922 -0.00019255 0.0061234
0.00064316 -0.00016794 0.005381
0.00080273 -0.00021245 0.0066471
0.00069274 -0.00018113 0.0057201
0.00073742 -0.0001933 0.0060443
0.0006912 -0.00017993 0.0056382
0.00067236 -0.00017426 0.0054515
0.00093132 -0.00024653 0.0074593
0.00065394 -0.00016834 0.0052449
0.00091365 -0.00024075 0.007232
0.00067193 -0.00017264 0.0053216
-0.00017276 6.4178e-05 -0.0011794
0.0028605 -0.0014813 0.017952
0.00071388 -0.00034958 0.0045412
-0.0079714 0.0040543 -0.049052
-0.0022227 0.0011457 -0.013599
4.0865e-05 4.8408e-06 -0.00052883
0.00070807 -9.1613e-05 -0.0072109
-0.00087892 0.00013889 0.0086412
-0.00052774 8.8265e-05 0.0051054
-0.00053013 8.8916e-05 0.0050968
-0.00094895 0.00014993 0.0092002
-0.00073988 0.00011994 0.0071124
-0.00059461 9.9195e-05 0.0056564
-0.00059339 9.9323e-05 0.0056122
-0.00084224 0.00013567 0.0079968
-0.00066601 0.00011046 0.0062605
-0.00058062 9.8401e-05 0.0054053
-0.0011626 0.00018294 0.010949
-0.00062309 0.00010517 0.0057619
-0.00052738 9.1626e-05 0.0048173
-0.00079643 0.00013085 0.0073267
-0.00048574 8.622e-05 0.0043671
-0.00037078 6.9898e-05 0.0032507
-0.00033333 6.4781e-05 0.002857
-0.00046114 -6.8777e-05 0.0038425
-0.00025804 -3.1532e-05 0.0020535
-0.00093488 -0.00015627 0.0077008
-0.00081794 -0.00013444 0.0066925
-0.00066852 -0.00010658 0.0054164
-0.00063666 -0.00010047 0.0051198
-0.000859 -0.00014161 0.0069189
-0.00086334 -0.00014221 0.0069233
-0.00066574 -0.00010516 0.0052766
-0.0012077 -0.00020624 0.0096467
-0.00061662 -9.5466e-05 0.0048268
-0.00083672 -0.00013655 0.0065651
-0.00083865 -0.00013671 0.0065482
-0.00082896 -0.00013469 0.0064384
-0.00090878 -0.00014953 0.0070399
-0.00072331 -0.00011434 0.0055398
-0.00087607 -0.00014303 0.0067077
-0.0011775 -0.00019992 0.0090349
-0.00071271 -0.00011161 0.0053747
-0.00082514 -0.00013279 0.0062125
-0.00060051 -8.9884e-05 0.0044411
-0.00056876 -0.00014133 0.004245
-0.00086095 -0.00022372 0.0064521
-0.0008676 -0.00022546 0.0064712
-0.00077375 -0.00019875 0.0057258
-0.00084577 -0.00021905 0.0062378
-0.00083877 -0.00021693 0.0061526
-0.00093718 -0.00024481 0.0068572
-0.00090328 -0.00023501 0.0065723
-0.0010306 -0.00027121 0.0074853
-0.0007427 -0.00018884 0.0053233
-0.00097461 -0.00025509 0.0069945
-0.00092642 -0.00024116 0.0066091
-0.0010556 -0.00027809 0.0075176
-0.0008068 -0.0002065 0.0056785
-0.00079324 -0.0002025 0.0055456
-0.001207 -0.00032167 0.0084809
-0.00081172 -0.00020748 0.0056207
-0.0014121 -0.00038092 0.0098551
0.023934 0.0087512 0.14823
0.0037426 0.0014449 0.023273
0.014563 0.0055709 0.090103
-0.00016544 3.4494e-05 0.0015294
0.00071093 -9.0685e-05 -0.0072367
-0.00088782 0.00013866 0.0087269
-0.00053648 8.873e-05 0.0051908
-0.00052927 8.8112e-05 0.0050871
-0.0009814 0.00015346 0.009518
-0.00075095 0.00012075 0.0072203
-0.00058848 9.7801e-05 0.0055957
-0.00059481 9.913e-05 0.0056253
-0.00085559 0.00013713 0.0081252
-0.00067254 0.00011114 0.0063232
-0.00058232 9.8535e-05 0.0054215
-0.0011769 0.00018489 0.011086
-0.0006276 0.00010587 0.0058052
-0.00052821 9.1907e-05 0.0048256
-0.00079487 0.00013098 0.0073126
-0.00048763 8.6835e-05 0.0043854
-0.0003741 7.079e-05 0.0032824
-0.00033059 6.4922e-05 0.0028323
0.00088016 -0.00030521 0.0060112
0.00066596 -0.00022621 0.0045406
0.00052876 -0.00017521 0.0035831
0.011021 0.0040251 0.06833
0.02111 0.0077202 0.13072
0.0033255 0.0012869 0.020687
0.012784 0.0048915 0.079077
0.0002533 -0.00015047 0.0021778
-9.8098e-05 6.7174e-05 -0.00068192
0.000253 -0.00014975 0.002152
0.00079051 -0.00048137 0.0064217
0.00075766 -0.00046064 0.0061259
0.0007191 -0.00043638 0.0057859
0.00069342 -0.00042008 0.0055483
0.00083483 -0.00050677 0.0066183
0.00075794 -0.00045896 0.0059861
0.00073673 -0.00044544 0.0057867
0.0007467 -0.00045111 0.0058271
0.00077591 -0.00046859 0.0060136
0.00081955 -0.00049493 0.0063082
0.00071681 -0.00043139 0.0054983
0.00091583 -0.00055302 0.0069489
0.00088747 -0.00053517 0.006703
0.0007108 -0.00042642 0.0053602
0.00081458 -0.00048949 0.0060834
0.00096425 -0.00058062 0.0071374
0.00070576 -0.00042202 0.0052261
0.00059988 -0.00035678 0.0044215
0.00078582 -0.00046982 0.0057037
0.00065027 -0.00038659 0.0047041
0.00076102 -0.0004536 0.0054373
0.00069697 -0.00041406 0.0049505
0.00079486 -7.2918e-05 0.0050667
0.0019586 -0.00020598 0.01225
-0.0046507 0.00056272 -0.028637
0.0005487 -0.00019293 0.0042986
0.00061549 -0.00021715 0.004773
0.00060423 -0.00021259 0.0046516
0.0012572 -0.00045277 0.0095256
0.00067138 -0.00023659 0.0051051
0.00069395 -0.00024449 0.0052372
0.00080167 -0.0002837 0.0059973
0.00089774 -0.00031862 0.006668
0.00070216 -0.00024634 0.0052058
0.00098206 -0.00034872 0.0071979
0.00079302 -0.00027892 0.0058013
0.00082543 -0.0002904 0.0059977
0.00075797 -0.00026525 0.0054816
0.00093836 -0.00033094 0.0067201
0.00090049 -0.00031666 0.0064191
0.00068542 -0.0002375 0.0048791
0.001084 -0.00038289 0.0076023
0.00079575 -0.00027708 0.0055803
0.0010832 -0.00038173 0.007511
0.00078687 -0.00027305 0.0054566
0.00088524 -0.00030855 0.0060836
0.00089367 -0.0003112 0.0061028
0.00069273 -0.00023748 0.0047212
0.00053125 -0.00017814 0.0036029
-4.8698e-05 -8.9969e-05 0.0012868
-4.0605e-05 -6.1544e-05 0.00095055
0.00055042 -0.001304 -0.01794
-0.00026906 0.00061645 0.0082003
-0.00025908 0.00059424 0.0078541
-0.00021305 0.0004871 0.0063614
-0.0004952 0.0011553 0.015284
-0.00027119 0.00062618 0.0081575
-0.00018023 0.00041159 0.0052512
-0.00060368 0.001423 0.018569
-0.00028863 0.00067172 0.0086206
-0.0001674 0.00038288 0.0047801
-0.00025436 0.00059356 0.0074734
-0.00096001 0.0022991 0.029485
-0.00019587 0.00045351 0.005602
-0.00023606 0.00055247 0.0068233
-0.00025577 0.00060183 0.0074058
-0.0003565 3.6516e-05 0.0028557
-0.00045227 4.321e-05 0.0036162
-0.00063642 5.5834e-05 0.0051006
-0.00068789 5.9521e-05 0.0054901
-0.00044994 4.3812e-05 0.0035149
-0.016284 0.0010985 0.13126
-0.00090288 7.4561e-05 0.0071345
-0.00091641 7.5698e-05 0.0072122
-0.00078872 6.7462e-05 0.006158
-0.00066208 5.9309e-05 0.0051153
-0.0011955 9.4738e-05 0.0093097
-0.00067045 6.0377e-05 0.0051294
-0.00076926 6.7095e-05 0.0058718
-0.0010686 8.6941e-05 0.0081785
-0.00087251 7.4348e-05 0.0066198
-0.00074168 6.6037e-05 0.005572
-0.00082425 7.1637e-05 0.0061748
-0.0014581 0.00011301 0.011003
-0.0069989 0.00047243 0.053346
-0.0011057 9.075e-05 0.008271
-0.0024402 9.1325e-05 -0.019285
0.00052653 -3.258e-06 0.0042529
0.0047811 -0.0001392 0.037725
0.0006757 -7.321e-06 0.0053919
0.00059569 -4.4068e-06 0.004731
0.00080386 -1.0738e-05 0.0063114
0.00066964 -6.0778e-06 0.0052419
0.00078841 -9.5458e-06 0.0061169
0.00058984 -2.8106e-06 0.0045693
0.0011784 -2.1411e-05 0.0089758
0.00075166 -7.3145e-06 0.0057352
0.00074336 -6.6981e-06 0.0056379
0.00087854 -1.0709e-05 0.0066059
0.00093911 -1.2315e-05 0.0070187
0.00071336 -4.6746e-06 0.0053264
0.00063508 -1.7968e-06 0.0047176
0.0010847 -1.5996e-05 0.0079288
0.00079832 -6.3756e-06 0.0058352
0.0008029 -6.1755e-06 0.0058313
0.00088381 -8.4498e-06 0.006369
0.00076839 -4.3575e-06 0.0055179
-0.0026013 -0.00072874 0.012857
-0.0018025 -0.00050295 0.0088482
-0.0020311 -0.00057565 0.0099516
-0.0055657 -0.0016284 0.027413
-9.9447e-06 0.00032089 0.0032824
-9.5323e-06 0.00035764 0.0036475
-8.2233e-06 0.00049715 0.0050993
-9.2183e-06 0.00037699 0.0038066
-9.447e-06 0.00033917 0.0033827
-6.723e-06 0.00054362 0.0054853
-6.1175e-06 0.00057976 0.0058356
-9.7478e-06 0.00031332 0.0030535
-7.6627e-06 0.00042872 0.0042086
-2.4756e-06 0.00071245 0.0070748
-7.5447e-06 0.00043025 0.004181
-8.2347e-06 0.00038467 0.0036917
-4.2036e-06 0.00056496 0.0054747
-3.4811e-06 0.00059078 0.005707
-7.8081e-06 0.00039577 0.0037361
-1.6907e-05 5.3563e-05 0.00035582
-0.00015816 0.00010626 0.0016539
-0.00041053 0.00026824 0.0044868
-0.00047199 0.00030787 0.0051485
-0.00042201 0.00027605 0.0045546
-0.0012094 0.0007814 0.013308
-0.00063346 0.00041211 0.0068655
-0.00045036 0.00029484 0.004802
-0.00050946 0.00033301 0.0054211
-0.00077502 0.00050374 0.0083029
-0.0007103 0.00046241 0.0075649
-0.0004481 0.00029422 0.0046746
-0.00071123 0.00046352 0.0074915
-0.00069376 0.00045251 0.0072719
-0.00049483 0.00032489 0.0051006
-0.00056027 0.00036719 0.0057665
-0.00064536 0.00042215 0.0066386
-0.00044285 0.00029212 0.0044592
-0.00024787 0.00016697 0.002352
-0.00061735 -3.2989e-05 0.0043962
-0.00039694 -1.5468e-05 0.0027487
-0.00062372 -3.3173e-05 0.0043433
-0.00074071 -4.2215e-05 0.0051444
-0.00097095 -6.0293e-05 0.0067452
-0.0011243 -7.2269e-05 0.007797
-0.00064403 -3.3652e-05 0.0043833
-0.0012264 -8.0099e-05 0.0084185
-0.0013653 -9.0989e-05 0.0093543
-0.00065319 -3.3487e-05 0.0043778
-0.0016781 -0.00011595 0.011404
-0.00082645 -4.6892e-05 0.0055207
-0.00081356 -4.561e-05 0.005398
-0.0011931 -7.6182e-05 0.0079428
-0.0010726 -6.6126e-05 0.007095
-0.00088164 -5.0326e-05 0.0057746
-0.00088111 -5.0045e-05 0.0057363
-0.002476 -0.00018041 0.01633
-0.0011411 -7.0743e-05 0.0074204
-0.00067632 -3.2375e-05 0.0043026
-0.001151 -0.00010166 0.0065315
-0.001495 -0.0001365 0.0084886
-0.0012413 -0.00010618 0.0069931
-0.00044111 -1.1897e-05 0.0022955
0.016693 0.0046069 0.15945
0.006166 0.0017123 0.058947
0.00075786 0.0002254 0.0073212
0.0004418 0.00013877 0.0042842
0.00072264 0.00021589 0.0068941
0.00066081 0.00019916 0.0062824
0.00049314 0.00015354 0.0046862
0.00069264 0.00020808 0.0064941
0.00061792 0.00018793 0.0057742
0.00079808 0.00023704 0.0073843
0.0004438 0.0001411 0.0041308
0.00083096 0.00024599 0.0075751
0.00066679 0.00020182 0.0060731
0.00055724 0.00017243 0.0050631
0.00064294 0.00019566 0.0057829
0.00061777 0.00018906 0.0055262
0.00060452 0.00018566 0.0053741
0.00053423 0.00016699 0.0047285
0.00072191 0.00021726 0.006298
0.00039577 0.00013039 0.0034782
-0.0008947 -0.00026998 0.0053258
-0.0043429 -0.001395 0.026202
-0.00061386 -0.0001779 0.0035779
-0.00077611 -0.00023097 0.0045142
-0.0013909 -0.00043247 0.0081405
-0.0011382 -0.00034946 0.0066099
-0.0011307 -0.0003469 0.0065323
-0.001022 -0.00031109 0.0058599
-0.0011313 -0.00034701 0.0064648
-0.001046 -0.00031884 0.0059347
-0.0010775 -0.00032919 0.0060826
-0.0013041 -0.00040403 0.0073531
-0.00134 -0.00041582 0.0075256
-0.0011481 -0.00035221 0.006397
-0.0011451 -0.00035116 0.0063454
-0.0013016 -0.00040305 0.0071953
-0.0011219 -0.00034327 0.0061497
-0.0013002 -0.00040256 0.0071128
-0.0011121 -0.00033985 0.0060295
-0.0012787 -0.00039537 0.006917
-0.00125 -0.00038574 0.0067238
-0.0012938 -0.00040035 0.0069293
-0.00065235 -0.00015951 0.0042354
-0.0013036 -0.00033987 0.0085404
-0.00080072 -0.00020047 0.0051694
-0.00098315 -0.00025122 0.0063399
-0.0010323 -0.00026493 0.0066298
-0.00098249 -0.00025108 0.0062715
-0.0011589 -0.00030042 0.0073864
-0.00091272 -0.00023155 0.005758
-0.001366 -0.00035877 0.0086462
-0.00087322 -0.00022037 0.0054477
-0.0010822 -0.00027927 0.0067478
-0.0011012 -0.00028468 0.0068352
-0.0010801 -0.00027876 0.006668
-0.0010549 -0.00027168 0.0064752
-0.0008825 -0.00022288 0.0053591
-0.00074893 -0.00018458 0.0044852
-0.0010589 -0.00027307 0.0063629
-0.0020214 -0.00042151 0.011504
-0.00058661 -0.00010766 0.003229
-0.00082663 -0.00016033 0.0045533
-0.0021934 -0.00046106 0.012213
-0.0011944 -0.00024091 0.0065724
-0.0016509 -0.00034151 0.009092
-0.00078245 -0.00014973 0.0042169
-0.0016096 -0.00033275 0.0087527
-0.00095328 -0.00018725 0.0051047
-0.0012023 -0.00024248 0.0064323
-0.0012909 -0.00026211 0.0068809
-0.0011301 -0.00022623 0.0059749
-0.0012103 -0.00024405 0.0063724
-0.001188 -0.00023902 0.0062184
-0.0015207 -0.00031336 0.0079585
-0.0011958 -0.00024055 0.0061986
-0.0014517 -0.00029787 0.0075162
-0.0011414 -0.00022813 0.005848
-0.0020039 -0.00042207 0.010325
-0.0012778 -0.00025853 0.0065049
-0.0011348 -0.00022626 0.0057259
-0.0013485 -0.00027448 0.006792
-1.1247e-05 0.00014455 0.0014183
-1.0466e-05 0.00029951 0.0030538
-1.0129e-05 0.00032852 0.0033383
-9.0749e-06 0.00045275 0.0046299
-9.8049e-06 0.00034773 0.0034991
-9.9213e-06 0.00031589 0.0031401
-7.6022e-06 0.00049581 0.0049891
-7.0347e-06 0.00052933 0.0053141
-1.0104e-05 0.00029372 0.0028527
-8.196e-06 0.00039788 0.0038945
-3.5091e-06 0.00065226 0.0064637
-8.066e-06 0.00039816 0.0038571
-8.5965e-06 0.0003598 0.0034426
-4.8829e-06 0.00052067 0.0050329
-4.1831e-06 0.00054397 0.005242
-8.0635e-06 0.00037226 0.0035046
